57.6439999      -46.689999      -59.909999      927.523
55.369  -46.75  -56.969999      925.382
57.243  -43.46  -61.039999      927.814
54.716  -43.5   -57.7   925.386
57.337  -39.77  -61.77  928.343
62.71   -26.37  -57.469999      932.163
63.9759999      -24.87  -54     932.366
59.865  -27.219999      -54.24  928.826
61.072  -25.78  -51.409999      928.774
59.8519999      -25.59  -46.46  925.314
57.204  -26.239999      -43.509999      921.029
47.615  -31.5   -38.64  907.212
46.1109999      -32.799999      -37.579999      904.388
44.8489999      -34.14  -36.64  901.886
41.764  -38.159999      -33.149999      893.822
45.051  -51.229999      -31.739999      901.622
42.2939999      -47.409999      -31.039999      895.66
46.146  -50.93  -35.509999      906.402
44.45   -48.829999      -34.77  903.256
51.1    -47.89  -49.71  919.857
39.399  -45.42  -25.78  881.653
41.322  -45.71  -30.41  892.534
38.7819999      -43.46  -26.01  879.257
39.968  -44.109999      -28.35  886.154
40.941  -43.759999      -30.91  891.688
41.3479999      -42.549999      -32.369999      893.908
40.2299999      -41.02  -30.21  887.939
45.332  -35.369999      -38.81  905.315
48.4119999      -48.31  -44.409999      915
44.7879999      -42.67  -40.159999      907.529
46.2349999      -43.93  -42.939999      911.557
50.0799999      -44.52  -50.1   919.289
52      -39.649999      -53.96  922.47
53.619  -35.609999      -55.109999      924.123
57.536  -27.94  -51.42  925.771
58.6469999      -26.539999      -48.939999      925.538
45.313  -40.799999      -41.399999      908.896
46.545  -41.659999      -44.02  912.403
49.676  -41.409999      -50.07  918.912
45.88   -36.509999      -40.899999      908.322
47.8209999      -34.159999      -42.799999      911.8
45.893  -39.02  -42.259999      909.986
46.9179999      -39.67  -44.579999      912.967
48.112  -39.74  -46.99  915.741
49.459  -39.07  -49.39  918.295
48      -35.2   -44.24  913.28
48.305  -38.02  -46.789999      915.663
49.326  -36.259999      -47.78  917.097
50.3909999      -36.27  -49.82  919.212
51.3969999      -34.57  -50.38  920.298
52.3179999      -32.64  -50.02  920.818
53.1259999      -30.84  -48.859999      920.814
51.4189999      -32.7   -48.329999      919.099
56.381  -27.26  -46.52  922.214
51.472  -30.59  -44.96  916.797
50.945  -30.37  -43.399999      915.096
50.158  -31.719999      -44.27  915.107
105.17  -34.2   -106.51 971.795
108.48  -45.899999      -110.28 973.67
113.099999      -53.159999      -110.48999      973.519
114.459999      -55.67  -108.17 972.909
114.69  -57.35  -99.79  972.222
115.18  -57.24  -95.53  971.544
102.18  -35.759999      -104.17 966.182
102.17  -39.539999      -104.65 965.541
112.37  -54.63  -86.829999      965.562
104.05  -42.96  -106.16 967.307
107.93  -54.18  -87.09  961.066
105.8   -53.92  -90.26  960.011
103.38  -52.659999      -92.73  958.779
101.28  -50.64  -95.069999      958.034
99.6989999      -47.99  -97.209999      957.926
99.0799999      -44.77  -99.5   958.869
107.76  -49.609999      -106.9  968.467
112.15  -55.799999      -102.53 969.298
102.68  -49.27  -99.98  961.04
103.44  -46.479999      -103.83 964.174
12      36.9519999      11.093  621.13
12      30.449  15.579  628.804
114.11  -1.092  -86.599999      956.219
72.778  -13.17  -51.1   940.367
86.537  -13.56  -52.539999      953.725
85.825  -15.76  -54.509999      954.887
110.62  0.32273 -83.25  953.516
84.518  -11.07  -49.64  950.287
17.012  40.505  3.96    678.791
16.916  8.385   3.969   696.894
103.53  3.717   -76.79  949.419
81.9569999      -12.38  -49.979999      948.575
96.515  7.655   -70.62  946.354
21.733  8.154   3.735   739.886
93.1009999      9.754   -67.549999      944.995
86.5439999      14.082  -61.259999      942.266
67.137  28.2399999      -38.229999      923.945
60.491  32.8639999      -25.37  906.488
58.3179999      34.1    -21.19  899.366
26.5689999      7.866   3.319   774.519
17.1039999      39.137  7.66    675.727
53.5039999      36.2479999      -12.76  882.558
50.5249999      37.1719999      -8.669  872.118
37.3939999      39.2479999      0.89889 821.627
32.2289999      39.712  2.311   796.15
22.0829999      40.3179999      3.687   727.713
17.1069999      33.901  13.664  675.032
16.9409999      26.4259999      16.523  681.978
16.786  18.507  15.535  690.379
16.757  14.968  13.647  692.704
16.827  9.756   7.667   695.543
31.5339999      7.509   2.643   804.141
51.5679999      4.523   -8.313  884.299
54.6469999      3.081   -13.66  895.632
56.893  1.808   -18.109999      903.774
58.9149999      0.46534 -22.44  910.664
60.828  -1.022  -26.76  916.675
62.6839999      -2.685  -31.05  921.888
64.557  -4.525  -35.27  926.406
66.5469999      -6.527  -39.34  930.368
76.988  1.79    -35.31  938.668
75.5879999      4.954   -31.52  935.733
71.546  19.8279999      -20.21  923.142
70.0669999      23.687  -19.739999      919.409
69.168  26.247  -21.8   918.622
22.2899999      36.7539999      10.725  724.605
74.9389999      -10.529999      -46.35  940.617
65.6629999      30.23   -26.69  915.522
67.6929999      28.469  -24.039999      917.254
65.6089999      29.9439999      -20.66  910.673
63.3489999      31.724  -22.969999      908.834
21.454  18.2689999      15.379  729.278
21.39   14.723  13.4689999      731.493
27.3999999      38.743  6.879   764.21
27.4209999      36.502  10.2959999      762.57
27.2289999      33.468  13.097  760.852
26.555  25.927  16.05   759.1
26.015  18.0219999      15.058  760.692
26.023  11.513  10.438  765.89
26.262  9.255   7.073   769.975
63.56   31.158  -16.969999      903.997
58.886  34.078  -14.88  894.379
55.966  33.7109999      -4.259  879.772
32.6039999      38.3819999      6.095   795.248
32.182  33.006  12.526  790.168
30.4089999      17.763  14.539  786.307
30.5109999      11.335  9.989   792.08
49.685  36.5559999      -2.113  864.001
52.5409999      34.161  -0.09495        869.227
78.0109999      -11.47  -48.03  943.998
37.7629999      35.3789999      8.763   817.705
36.9789999      32.261  11.762  813.194
36.188  28.736  13.7319999      809.748
34.4819999      14.148  12.009  808.873
34.765  11.266  9.435   812.891
41.3459999      7.58    2.61    845.074
43.9949999      6.669   -0.09888        856.355
47.323  6.191   -2.211  867.711
49.331  33.7349999      3.846   858.657
72.0139999      -7.842  -42.06  936.256
74.8139999      -6.269  -40.96  938.243
75.552  -2.787  -37.77  937.725
74.1449999      -0.1785 -34.18  934.874
72.697  2.552   -30     931.16
69.825  -5.623  -38.229999      932.658
72.802  -4.235  -37.609999      935.024
67.915  -3.535  -34.259999      928.86
66.1209999      -1.59   -30.07  924.516
62.444  1.663   -21.44  913.71
68.2879999      6.435   -20.09  918.581
60.5309999      3.015   -17.16  907.362
63.8609999      4.996   -16.629999      910.589
66.543  7.458   -16.489999      913.248
68.613  9.977   -16.93  915.787
58.5919999      4.334   -12.84  900.404
62.1739999      6.347   -12.619999      904.561
65.0709999      8.885   -12.81  907.875
69.063  14.75   -14.72  913.657
70.09   17.951  -16.26  916.121
68.587  22.693  -14.69  911.448
51.2809999      6.296   -3.697  878.125
63.579  10.513  -9.077  902.164
65.8569999      13.545  -9.901  905.2
46.859  32.1989999      7.28    849.934
40.371  27.8389999      12.75   826.954
44.094  26.7749999      11.576  840.276
43.191  23.4989999      12.44   837.867
42.002  16.925  11.6709999      836.669
38.335  14.052  11.169  825.193
42.843  9.477   5.453   846.708
44.015  8.036   2.834   853.071
54.1709999      9.178   -0.8797 880.174
67.45   16.7139999      -11.19  907.778
68.3499999      19.818  -12.85  909.918
66.5019999      21.771  -9.679  903.896
66.7339999      24.416  -11.75  905.508
63.6739999      20.7839999      -4.613  895.66
45.186  11.678  7.083   851.464
45.006  13.9629999      8.96599999      848.713
45.2269999      16.6329999      10.317  847.483
46.49   22.6759999      10.993  848.716
47.344  25.6819999      10.231  850.715
49.716  30.1679999      6.86    858.02
51.8359999      31.167  4.388   864.664
54.7079999      31.326  1.335   873.094
57.968  30.7519999      -2.278  882.305
66.3769999      26.706  -13.609999      906.19
61.353  22.748  -1.574  889.12
58.756  24.378  1.275   882.16
56.026  25.553  3.836   874.939
53.085  28.7779999      5.047   867.393
51.2719999      28.8    6.527   862.206
50.872  27.186  7.576   860.953
49.4769999      21.8569999      9.361   857.748
48.722  19.009  9.40199999      856.669
47.823  13.9309999      7.653   857.271
47.9279999      11.901  6.033   859.485
53.3539999      26.367  5.966   867.808
60.261  19.663  -0.04801        886.908
58.0219999      21.428  2.539   880.594
55.5619999      22.7319999      4.87    873.932
52.948  23.7459999      6.927   866.872
58.616  17.1    1.188   883.874
56.874  18.814  3.409   878.528
52.2109999      21.0159999      7.54    865.543
50.6809999      15.97   7.192   863.83
50.265  13.869  6.263   864.241
53.7199999      17.6269999      5.765   870.954
52.0979999      12.307  3.928   870.644
52.4179999      11.323  2.823   872.559
55.6379999      16.652  3.853   876.48
54.5919999      14.895  3.877   874.96
53.8509999      13.452  3.543   874.206
53.3059999      11.664  2.506   874.535
54.7879999      11.7769999      1.456   878.301
45.125  7.266   0.99472 858.194
166.65  -38.1   -88.31  965.61
167.02  -25.8   -92.59  965.458
119.66  -36.719999      -128.00999      972.26
116.02  -35.34  -124.36 977.59
159.37  -35.34  -81.019999      978.179
163.009999      -36.719999      -84.659999      972.767
126.14  -20.71  -127.59999      967.549
131.38  -14.34  -124.76 962.904
134.34  -11.81  -122.78 960.401
143.8   -7.412  -114.97 957.274
146.949999      -7.111  -111.95 958.221
149.97  -7.412  -108.8  960.282
155.44  -9.786  -102.44 965.284
157.77  -11.81  -99.34  967.58
163.71  -28.379999      -87.12  973.023
117.04  -31.12  -124.95 977.113
136.97  -6.93   -114.18 968.359
146.33  -6.032  -105.16 970.539
154.13  -10.43  -95.689999      974.521
156.13  -12.96  -92.739999      975.638
157.74  -15.949999      -89.989999      976.589
111.81  -42.35  -118.4  978.543
112.16  -46.32  -116.59999      977.513
112.98  -50.109999      -114.39 976.492
117.739999      -58.92  -106.18 974.073
125.55  -63.32  -96.719999      973.933
128.599999      -63.63  -93.599999      973.549
131.69  -63.299999      -90.519999      973.084
134.93  -62.43  -87.719999      972.642
141.139999      -58.899999      -82.7   972.016
144.13  -56.31  -80.659999      972.311
149.38  -50.03  -77.92  974.937
151.53  -46.289999      -77.099999      976.592
154.84  -38.219999      -76.93  979.285
106.81  -37.02  -111.3  975.741
109.36  -40.21  -115.87 978.154
109.27  -43.18  -114.23999      977.067
148.3   -35.7   -72.51  977.62
122.739999      -61.859999      -94.12  975.136
129.509999      -62.31  -88.579999      974.325
135.93  -59.68  -82.68  972.784
147.71  -39.14  -72.59  976.613
121.42  -57.95  -86.519999      974.139
138.77  -58.7   -81.68  972.182
150.199999      -44.659999      -75.359999      976.632
150.44  -41.229999      -74.359999      977.797
125.78  -59.659999      -85.64  974.716
107.68  -40.049999      -112.55 976.353
145.699999      -66.5   -98.489999      942.955
165.63  -42.31  -87.73  964.864
158.72  -49.02  -84.29  969.498
148.33  -61.619999      -89.9   960.28
138.87  -66.019999      -97.7   956.878
135.729999      -66.319999      -100.73 957.773
132.699999      -66.019999      -103.86 959.561
129.849999      -65.12  -107.06 961.815
127.23  -63.649999      -110.23999      964.172
119.29  -49.009999      -123.72 971.56
119.09  -40.93  -126.98999      972.404
158.349999      -39.549999      -80.439999      977.541
156.91  -43.68  -80.319999      976.507
152.889999      -51.34  -81.43  973.491
150.4   -54.719999      -82.64  971.857
144.69  -60.24  -86.26  969.135
138.419999      -63.74  -91.2   967.972
126.2   -63.74  -103.42 970.554
119.26  -57.71  -112.64 973.515
116.43  -51.34  -117.89 975.607
114.22  -11.33  -111.37 965.156
107.319999      -9.06   -104.78 957.818
117.64  -2.518  -89.59  959.737
106.02  -5.236  -99.9   954.39
115.72  -2.158  -93.689999      958.663
120.709999      -5.909  -105.83 966.597
120.58  -4.48   -101.19 965.43
117.09  -3.598  -99.219999      961.386
113.77  -6.234  -104.68 960.705
113.78  -3.483  -99.31  958.611
111.78  -2.034  -95.519999      956.089
108.66  -3.168  -97.81  954.837
112.39  -16.829999      -113.56999      969.094
99.7759999      -18.12  -102.16 957.287
99.9039999      -14.199999      -101.83 955.258
105.15  -11.99  -105.31 958.143
105.17  -20.34  -107.53 964.704
106.209999      -15.35  -107.72 961.65
103.28  -17.449999      -105.53 960.296
119.36  -13.119999      -116.37 971.044
122.489999      -10.84  -115.56 971.214
150.59  -8.491  -115.59 944.19
159.08  -11.17  -106.08 955.39
161.41  -13.19  -102.98 958.723
163.41  -15.72  -100.02 961.371
166.24  -22.09  -94.78  964.599
167.229999      -33.88  -89.319999      965.95
139.37  -67.7   -104.37 943.875
12      92.988  0.88578 664.221
12      93.384  4.896   657.559
12      96.9689999      12.023  649.209
12      124.239999      8.53299999      655.969
12      119.19  -12.93  640.549
12      103.87  -14.699999      668.737
12      97.322  -10.15  674.698
12      26.585  16.53   636.643
12      33.972  13.73   622.947
12      39.212  7.821   622.781
12      40.619  4.097   628.04
12      41.106  0.1473  636.479
12      39.2169999      -7.52   654.766
12      30.454  -15.279999      662.805
12      26.591  -16.23  659.174
12      -125.68 4.78    646.896
12      -97.269999      -10.14  673.532
12      -111.72 -15.72  655.29
12      -115.61 -14.789999      647.058
12      -119.16 -12.93  639.797
12      -122.15 -10.27  634.627
12      147.5   -12.99  534.88
12      143.479999      -10.91  540.298
12      142.05  -9.298  547.38
12      140.039999      -8.535  555.985
12      137.9   -8.7959999      563.819
12      136.13  -10.02  568.649
12      135.13  -11.93  568.469
12      135.13  -14.08  564.1
12      136.13  -15.99  556.281
12      137.91  -17.21  548.205
12      140.039999      -17.469999      541.107
12      142.06  -16.699999      536.206
12      143.49  -15.09  534.339
12      146.58  -9.268  539.347
12      144.039999      -6.403  548.45
12      140.449999      -5.048  558.396
12      136.65  -5.513  568.772
12      133.5   -7.692  576.31
12      131.72  -11.09  576.608
12      131.729999      -14.92  567.141
12      133.509999      -18.309999      558.969
12      136.66  -20.48  549.508
12      140.47  -20.94  540.723
12      144.05  -19.579999      535.366
12      146.59  -16.71  533.542
12      139.569999      0.12417 570.71
12      137.33  3.388   584.453
12      130.03  -22.039999      567.143
12      133.509999      -21.67  557.622
12      136.55  -21.35  549.83
12      129.66  -18.219999      570.994
12      134.44  0.76603 586.182
12      135.539999      -2.373  575.239
12      90      24.003  574.029
12      93.5    24.0159999      579.308
12      89.483  26.094  565.694
12      88.054  27.7049999      556.535
12      86.04   28.468  549.033
12      83.902  28.207  544.138
12      82.1299999      26.9819999      542.739
12      81.1299999      25.074  544.711
12      81.132  22.92   550.208
12      82.134  21.0139999      558.189
12      83.9069999      19.791  567.523
12      86.046  19.533  575.455
12      88.0589999      20.2979999      580.002
12      89.486  21.9119999      579.453
12      92.5799999      27.7349999      568.128
12      90.037  30.6    557.597
12      86.4539999      31.9549999      547.98
12      82.6509999      31.4899999      543.286
12      79.5    29.311  541.887
12      77.7229999      25.917  543.853
12      77.727  22.0859999      549.121
12      79.51   18.695  559.58
12      82.665  16.5219999      570.531
12      86.4689999      16.064  581.421
12      90.049  17.4259999      587.572
12      92.587  20.2959999      586.78
12      80.302  15.77   569.229
12      97.7699999      28.565  580.846
12      84.432  13.121  583.144
12      81.4899999      11.3829999      583.354
12      86.828  13.489  588.503
12      90.424  14.041  605.486
12      88.7549999      11.367  605.516
12      98.152  22.8649999      595.242
12      62      24.0159999      507.16
12      57.9829999      26.094  505.442
12      54.539  28.468  508.525
12      50.63   26.9819999      519.943
12      49.63   25.074  526.471
12      49.631  22.92   531.34
12      50.634  21.0139999      532.771
12      54.545  19.533  525.923
12      57.9859999      21.911  512.691
12      61.0799999      27.7349999      504.828
12      58.5369999      30.6    505.009
12      54.953  31.9549999      507.708
12      51.151  31.4899999      513.519
12      48      29.311  521.695
12      46.2259999      22.0859999      536.088
12      48.0099999      18.695  538.627
12      51.1649999      16.5219999      535.302
12      58.5489999      17.4259999      520.356
12      61.087  20.2959999      512.454
12      56.4179999      10.542  537.27
12      57.9739999      13.7929999      527.923
12      46.622  30.341  523.799
12      42.093  29.192  535.248
12      37.5649999      28.0429999      549.829
12      41.2019999      24.405  543.758
12      42.9189999      20.789  546.606
12      45.505  17.4149999      547.594
12      48.609  14.4819999      545.064
12      52.207  12.1229999      541.171
12      2.002   -25.98  559.18
12      -2.015  -23.91  564.427
12      -5.459  -21.53  577.017
12      -9.369  -23.02  580.625
12      -10.369999      -24.93  576.563
12      -10.369999      -27.079999      569.336
12      -9.365  -28.989999      561.281
12      -5.453  -30.469999      551.416
12      -2.012  -28.09  553.72
12      -1.461  -19.399999      572.939
12      -5.045  -18.039999      580.776
12      -8.847  -18.51  587.417
12      -13.779999      -24.079999      582.463
12      -13.77  -27.91  571.868
12      -12.05  -31.66  561.677
12      -5.03   -33.939999      550.39
12      -1.449  -32.57  550.541
12      -46     24.0159999      543.376
12      -50.02  26.094  533.059
12      -51.45  27.7049999      525.755
12      -53.46  28.468  519.499
12      -57.369999      26.9819999      514.252
12      -58.369999      25.074  515.659
12      -58.369999      22.92   519.782
12      -57.369999      21.0139999      526.2
12      -55.59  19.791  533.613
12      -53.45  19.533  539.915
12      -50.009999      21.911  543.698
12      -46.92  27.7349999      535.247
12      -49.46  30.6    526.848
12      -53.049999      31.9549999      518.781
12      -56.85  31.4899999      514.872
12      -61.77  22.0859999      518.922
12      -59.99  18.695  526.923
12      -56.829999      16.5219999      536.308
12      -49.45  17.4259999      549.801
12      -46.909999      20.2959999      549.242
12      5.013   -30.829999      557.098
12      -18.239999      -29.109999      580.408
12      -17.219999      -26.739999      582
12      -3.226  -15.17  583.788
12      -56.359999      10.785  550.977
12      -58.18  14.74   538.382
12      -43.119999      25.1009999      547.148
12      -44.1   19.0919999      559.749
12      -47.789999      15.0879999      559.61
12      -45.939999      17.09   559.35
12      -51.43  11.599  558.506
12      -91.489999      29.315  562.591
12      -77.5   24.0159999      548.965
12      -81.519999      26.094  545.641
12      -84.959999      28.4669999      547.501
12      -88.87  26.9819999      560.888
12      -89.87  25.074  569.301
12      -89.87  22.92   576.919
12      -88.87  21.0139999      580.295
12      -84.95  19.533  574.496
12      -81.51  21.911  557.122
12      -80.959999      30.6    543.997
12      -84.549999      31.9549999      546.481
12      -88.349999      31.4899999      552.882
12      -93.269999      22.0859999      580.44
12      -78.409999      20.2959999      557.347
12      -147.44 -12.039999      534.43
12      -137.25 -16.899999      549.948
12      -141.75 -9.105  547.657
12      -139.02 -21.48  542.401
12      -131.5  -12.99  572.907
12      -135.52 -10.91  567.943
12      -136.94999      -9.297  565.258
12      -138.96 -8.534  558.311
12      -142.87 -10.02  542.096
12      -143.87 -11.93  536.331
12      -143.87 -14.08  533.498
12      -142.87 -15.99  533.829
12      -141.09 -17.21  537.117
12      -138.96 -17.469999      543.087
12      -135.50999      -15.09  559.463
12      -132.41999      -9.2669999      577.187
12      -138.55 -5.046  561.182
12      -142.34999      -5.512  551.785
12      -147.27 -14.92  532.752
12      -142.34 -20.48  536.647
12      -134.94999      -19.579999      552.621
12      -132.41 -16.71  563.028
12      -98.89  28.3799999      584.196
12      -95.379999      29.417  572.279
12      -79.609999      16.555  568.814
12      -97.93  26.151  584.634
12      -134.75999      -21.829999      552.545
12      -135.94 -1.748  574.783
12      -132.3  -5.256  585.123
12      -130.16999      -9.019  589.756
12      -129.66 -16.57  571.732
12      -130.08 -19.379999      566.714
12      -128.31 -12.93  586.878
12      -125.54 -16.379999      590.643
12      -125.88 -19.46  582.035
12      -51.68  0.6665  593.341
12      -31.44  -23.309999      631.191
6       133.539999      3.8     585.417
6       135.09  6.651   587.978
6       132.37  10.387  601.465
6       129.569999      5.765   598.421
6       129.65  14.1229999      612.11
6       127.77  10.411  609.696
6       124.93  14.4979999      618.506
6       126.14  17.9869999      619.638
6       121.19  17.7989999      623.329
6       121.87  20.9989999      623.354
6       116.79  20.1299999      623.647
6       117.05  23.0159999      623.069
6       111.959999      21.3539999      618.543
6       112.17  24.4579999      617.193
6       106.98  21.3909999      609.014
6       107.29  25.901  605.093
6       102.14  20.225  599.284
6       102.41  27.344  588.982
6       86.1979999      9.72    587.597
6       82.6779999      6.995   589.102
6       84.2699999      2.161   605.299
6       89.54   5.778   603.826
6       85.8619999      -2.674  618.637
6       89.024  0.82356 614.38
6       89.691  -4.099  623.779
6       87.4549999      -7.508  626.308
6       91.4959999      -8.726  628.936
6       89.3289999      -11.76  628.82
6       94.3319999      -12.8   629.998
6       91.989  -15.57  628.678
6       98.0499999      -16.1   628.183
6       95.3329999      -18.8   626.9
6       102.44  -18.42  624.185
6       99.2369999      -21.32  623.852
6       107.26  -19.64  618.09
6       103.55  -23.05  619.7
6       112.22  -19.66  609.855
6       108.12  -23.91  614.115
6       112.77  -23.87  606.826
6       114.15  -21.579999      604.544
6       117.36  -23.379999      596.288
6       117.4   -20.69  597.149
6       117.05  -18.489999      599.212
6       121.959999      -22.899999      583.223
6       121.61  -19.42  585.997
6       121.44  -16.18  588.886
6       126.56  -22.41  569.566
6       125.81  -18.129999      574.264
6       125.15  -12.869999      582.295
6       8.871   -25.59  562.647
6       11.474  -29.079999      562.82
6       16.527  -27.55  575.48
6       13.0589999      -23.129999      572.411
6       21.581  -26.03  590.213
6       17.3299999      -19.02  591.979
6       26.635  -24.5   604.206
6       22.129  -20.199999      600.279
6       27.0719999      -20.199999      609.304
6       31.6879999      -22.98  612.73
6       31.872  -19.02  615.316
6       36.2749999      -21.05  615.847
6       36.249  -16.719999      617.089
6       40.3669999      -18.219999      615.434
6       39.9489999      -13.449999      614.753
6       43.7879999      -14.609999      612.148
6       42.7569999      -9.378  608.297
6       46.3909999      -10.38  605.503
6       44.5099999      -4.756  597.487
6       48.509  -5.959  594.175
6       12.9529999      -16.719999      587.116
6       9.589   -19.5   571.691
6       9.25    -13.449999      587.359
6       6.413   -16.079999      574.432
6       45.1049999      0.15093 584.537
6       50.6259999      -1.542  577.879
6       52.744  2.875   559.703
6       49.402  3.689   564.869
6       44.5009999      5.055   573.24
6       49.445  8.182   551.609
6       54.8609999      7.291   542.318
6       6.443   -9.377  592.651
6       3.843   -12.33  580.65
6       36.182  22.893  555.481
6       33.036  26.8939999      559.159
6       28.291  25.6789999      576.638
6       31.867  19.3189999      575.551
6       23.5459999      24.465  591.987
6       27.067  20.501  587.122
6       22.125  20.501  598.607
6       18.8009999      23.251  602.037
6       17.3249999      19.3189999      605.855
6       13.75   21.331  606.665
6       12.948  17.023  607.775
6       9.363   19.4929999      604.768
6       9.246   13.7479999      606.478
6       4.741   18.3709999      597.14
6       6.439   9.679   605.684
6       2.947   12.478  598.577
6       -9.80E-13       17.994  593.062
6       -0.7326 13.981  594.765
6       -4.741  18.3709999      595.553
6       -4.697  14.281  597.503
6       -9.363  19.4929999      601.397
6       -10.05  13.7669999      604.767
6       -26.17  -25.69  598.169
6       -21.949999      -27.59  583.562
6       -18.69  -23.629999      583.546
6       -24.329999      -23.02  598.768
6       -13.75  21.331  604.727
6       -13.77  17.0369999      606.197
6       -18.16  19.3249999      605.224
6       -18.8   23.251  602.715
6       -22.98  20.5019999      599.678
6       -23.55  24.465  595.57
6       -27.93  20.5019999      590.161
6       -28.289999      25.6789999      583.13
6       -7.214  9.69999999      604.562
6       -3.835  10.4149999      600.108
6       -5.442  5.07    605.229
6       -2.276  6.566   601.986
6       -32.75  19.327  580.707
6       -33.039999      26.8939999      566.749
6       -37.78  28.108  550.67
6       -39.32  22.466  555.995
6       -37.14  17.041  573.847
6       -41.289999      17.8889999      562.105
6       -40.869999      13.7739999      572.286
6       -42.659999      14.869  566.407
6       -43.71  9.711   576.305
6       -46.119999      12.75   562.743
6       -4.834  0.15518 603.638
6       -1.019  2.043   602.565
6       -27.46  -22.109999      608.08
6       -29.329999      -24.26  608.914
6       -22.969999      -20.199999      600.753
6       -27.93  -20.199999      611.945
6       -5.43   -4.767  599.003
6       -0.8645 -4.218  597.042
6       4.688   -4.756  599.834
6       1.692   -8.4529999      589.846
6       -7.196  -9.401  593.513
6       -4.163  -10.19  588.142
6       -10.029999      -13.47  589.985
6       -7.014  -14.289999      583.617
6       4.091   0.15071 604.442
6       4.684   5.058   605.781
6       0.78571 8.87599999      599.97
6       -1.253  11.098  597.549
6       -49.34  7.677   568.448
6       -45.479999      5.085   585.759
6       36.243  17.0219999      567.222
6       39.6109999      19.492  552.552
6       39.944  13.7449999      564.033
6       42.999  16.135  550.624
6       42.753  9.678   566.058
6       46.052  12.442  550.651
6       -1.408  -12.289999      580.19
6       6.116   -22.379999      564.412
6       2.789   -19.32  566.952
6       -3.226  -15.17  575.663
6       0.80479 -15.33  572.787
6       -81.09  11.829  574.258
6       -79.609999      16.555  562.92
6       -80.95  17.4289999      562.091
6       -84.53  16.0689999      572.102
6       -121.41 -16.18  588.04
6       -121.95999      -22.899999      582.345
6       -117.36 -23.379999      595.925
6       -117.01 -18.489999      598.711
6       -112.18 -19.66  609.254
6       -112.77 -23.87  606.156
6       -107.20999      -19.64  617.555
6       -108.12 -23.91  613.417
6       -102.39 -18.42  623.567
6       -103.55 -23.05  619.015
6       -98     -16.1   627.402
6       -99.239999      -21.32  623.287
6       -95.329999      -18.8   626.297
6       -95.81  -16.76  627.271
6       -91.989999      -15.57  627.851
6       -93.93  -15     628.175
6       -94.28  -12.8   629.098
6       -89.329999      -11.76  627.645
6       -91.439999      -8.726  627.791
6       -87.45  -7.508  625.062
6       -89.629999      -4.099  622.431
6       -85.859999      -2.674  617.375
6       -88.959999      0.82441 612.755
6       -84.269999      2.161   604.362
6       -89.489999      5.778   601.694
6       -82.68  6.995   587.904
6       -91.18  10.4659999      590.935
6       -86.299999      10.6519999      584.596
6       -133.33 1.551   579.712
6       -130.18 0.82673 586.556
6       -129.53999      5.768   597.109
6       -135.09 6.651   585.475
6       -127.73 10.411  608.504
6       -132.37 10.387  600.356
6       -129.65 14.1229999      610.942
6       -124.88 14.4979999      617.257
6       -126.14 17.9869999      618.484
6       -121.14 17.7989999      621.854
6       -121.87 20.9989999      621.801
6       -116.73999      20.1299999      622.351
6       -117.05 23.0159999      621.474
6       -115.29 22.05   620.426
6       -111.91 21.355  616.736
6       -111.26 22.9669999      614.815
6       -112.17 24.4579999      615.212
6       -106.93 21.3939999      607.11
6       -107.16 23.562  605.444
6       -107.29 25.901  602.987
6       -102.08 20.23   598.018
6       -103.75 23.718  596.583
6       -102.41 27.344  586.647
6       -99.049999      23.55   584.209
6       -91.489999      18.7029999      580.839
6       -93.959999      14.598  588.851
6       -88.34  16.529  579.268
6       124.239999      8.53299999      617.535
6       125.7   4.775   607.968
6       130.22  0.82795 587.988
6       126.23  0.78768 599.289
6       121.94  11.8379999      625.388
6       118.92  14.512  629.854
6       115.36  16.401  630.074
6       111.459999      17.395  625.879
6       129.669999      -4.108  581.911
6       125.78  -3.188  593.397
6       107.44  17.431  618.537
6       103.54  16.498  610.965
6       97.73   17.914  593.698
6       99.9959999      14.645  606.176
6       94.019  14.593  592.696
6       96.9689999      12.023  605.07
6       127.95  -8.7669999      579.894
6       124.4   -6.939  591.576
6       91.238  10.461  595.468
6       94.736  8.685   608.287
6       92.988  0.88578 623.393
6       93.384  4.896   614.732
6       93.549  -3.099  630.988
6       95.025  -6.845  635.594
6       97.322  -10.15  636.766
6       100.33  -12.82  635.109
6       103.87  -14.699999      631.218
6       107.75  -15.69  625.285
6       111.76  -15.72  617.4
6       115.65  -14.779999      608.404
6       119.19  -12.93  599.73
6       122.15  -10.24  593.646
6       22.6119999      -16.23  610.209
6       18.748  -15.279999      603.298
6       26.591  -16.23  617.373
6       30.454  -15.279999      622.387
6       33.978  -13.43  623.934
6       36.956  -10.789999      621.632
6       39.2169999      -7.52   615.472
6       40.628  -3.8    606.01
6       15.223  -13.43  599.706
6       12.243  -10.789999      600.059
6       41.106  0.1473  595.046
6       40.619  4.097   585.518
6       9.984   -7.518  603.778
6       26.585  16.53   596.976
6       30.449  15.579  587.222
6       22.606  16.53   606.364
6       18.7429999      15.579  612.783
6       15.2189999      13.73   615.365
6       12.24   11.095  615.426
6       9.98    7.82    614.915
6       -16.02  13.744  613.893
6       -13.029999      11.1039999      613.699
6       -19.57  15.585  612.286
6       -23.46  16.5309999      607.38
6       -27.46  16.5309999      599.841
6       -10.75  7.832   613.536
6       -9.318  4.104   613.118
6       -31.34  15.583  592.069
6       -34.89  13.741  587.278
6       -37.89  11.1099999      586.419
6       -40.18  7.839   590.074
6       -8.8089999      0.14727 611.24
6       -46.09  0.1667  599.123
6       -42.1   0.16583 609.94
6       -41.609999      4.119   598.225
6       -45.479999      -4.755  613.972
6       -41.649999      -3.8    621.995
6       -43.71  -9.385  624.846
6       -40.21  -7.53   631.387
6       -40.869999      -13.449999      629.473
6       -37.909999      -10.81  635.804
6       -37.14  -16.719999      628.409
6       -34.89  -13.43  634.964
6       -32.74  -19.01  622.284
6       -31.329999      -15.27  629.53
6       -27.449999      -16.23  620.955
6       -23.44  -16.23  611.872
6       -18.149999      -19.03  593.218
6       -19.55  -15.289999      604.688
6       -13.75  -16.75  589.848
6       -16     -13.449999      601.278
6       -9.2899999      -3.813  607.705
6       8.571   -3.798  608.737
6       -10.71  -7.544  603.772
6       -13     -10.82  601.252
6       8.09099999      0.15261 612.472
6       8.567   4.101   614.144
6       33.972  13.73   580.368
6       36.9519999      11.093  577.567
6       39.212  7.821   579.345
6       -115.61 -14.789999      607.504
6       -119.16 -12.93  598.6
6       -125.12 -12.88  580.683
6       -122.15 -10.27  592.544
6       -127.91 -8.771  578.27
6       -124.39 -6.961  590.314
6       -111.72 -15.72  616.803
6       -107.70999      -15.69  624.693
6       -103.81999      -14.699999      630.567
6       -100.28 -12.81  634.333
6       -97.269999      -10.14  635.83
6       -94.969999      -6.841  634.467
6       -93.5   -3.095  629.55
6       -92.95  0.88454 621.534
6       -93.37  4.888   612.007
6       -94.73  8.667   604.513
6       -129.63 -4.111  580.26
6       -125.77 -3.198  592.158
6       -126.2  0.79038 598.044
6       -125.68 4.78    606.714
6       -124.2  8.529   616.345
6       -121.89 11.836  624.151
6       -118.86 14.51   628.575
6       -115.3  16.402  628.657
6       -111.4  17.3969999      624.485
6       -107.38 17.434  617.246
6       -103.48 16.503  609.673
6       -97.67  17.92   592.436
6       -99.939999      14.6519999      604.185
6       -96.959999      11.9849999      601.975
6       136.55  -21.35  544.068
6       136.66  -20.48  543.765
6       140.47  -20.94  535.413
6       131.72  -11.09  567.791
6       133.5   -7.692  567.319
6       131.729999      -14.92  561.533
6       129.66  -18.219999      562.656
6       133.509999      -18.309999      552.606
6       130.03  -22.039999      560.068
6       133.509999      -21.67  551.258
6       140.039999      -17.469999      535.786
6       137.91  -17.21  542.544
6       136.13  -15.99  550.281
6       135.13  -14.08  557.13
6       135.13  -11.93  561.233
6       136.13  -10.02  561.167
6       137.9   -8.7959999      556.846
6       136.65  -5.513  560.862
6       140.039999      -8.535  549.671
6       140.449999      -5.048  552.059
6       142.05  -9.298  541.706
6       144.039999      -6.403  542.746
6       143.479999      -10.91  534.999
6       146.58  -9.268  534.097
6       144     -13     530.582
6       147.5   -12.99  529.825
6       143.49  -15.09  529.307
6       146.59  -16.71  528.542
6       142.06  -16.699999      531.097
6       144.05  -19.579999      530.295
6       134.44  0.76603 576.88
6       137.33  3.388   575.354
6       135.539999      -2.373  568.141
6       139.569999      0.12417 563.334
6       86.4689999      16.064  572.604
6       86.046  19.533  568.084
6       83.9069999      19.791  560.708
6       82.665  16.5219999      563.648
6       82.134  21.0139999      552.103
6       79.51   18.695  553.403
6       81.132  22.92   544.554
6       77.727  22.0859999      543.532
6       81.1299999      25.074  539.318
6       77.7229999      25.917  538.498
6       82.1299999      26.9819999      537.43
6       79.5    29.311  536.615
6       83.902  28.207  538.768
6       82.6509999      31.4899999      537.953
6       86.04   28.468  543.431
6       86.4539999      31.9549999      542.44
6       88.054  27.7049999      550.532
6       90.037  30.6    551.525
6       89.483  26.094  559.021
6       92.5799999      27.7349999      561.367
6       90      24.003  566.78
6       93.5    24.0159999      570.878
6       89.486  21.9119999      571.54
6       92.587  20.2959999      578.228
6       88.0589999      20.2979999      572.053
6       90.049  17.4259999      578.732
6       80.302  15.77   562.378
6       81.4899999      11.3829999      575.349
6       84.432  13.121  574.64
6       86.828  13.489  578.902
6       90.424  14.041  586.768
6       88.7549999      11.367  589.296
6       98.152  22.8649999      584.998
6       97.7699999      28.565  573.259
6       54.755  16.853  522.418
6       54.545  19.533  521.028
6       51.75   20.103  526.513
6       51.1649999      16.5219999      529.81
6       50.634  21.0139999      527.519
6       48.0099999      18.695  532.784
6       49.631  22.92   526.157
6       46.2259999      22.0859999      530.499
6       49.63   25.074  521.53
6       45.4889999      25.7229999      525.868
6       50.63   26.9819999      515.308
6       48      29.311  516.981
6       51.75   27.8969999      510.769
6       51.151  31.4899999      509.129
6       54.539  28.468  504.334
6       54.953  31.9549999      503.552
6       56.25   27.8969999      501.785
6       58.5369999      30.6    500.947
6       57.9829999      26.094  501.365
6       61.0799999      27.7349999      500.774
6       58.5    24      503.706
6       62      24.0159999      503.024
6       57.9859999      21.911  508.351
6       61.087  20.2959999      508.112
6       56.25   20.103  515.287
6       58.5489999      17.4259999      515.706
6       46.622  30.341  518.992
6       59.0959999      16.125  517.479
6       42.093  29.192  529.823
6       37.5649999      28.0429999      543.384
6       41.2019999      24.405  537.548
6       42.9189999      20.789  539.756
6       56.4179999      10.542  531.873
6       52.207  12.1229999      535.235
6       57.9739999      13.7929999      522.936
6       48.609  14.4819999      538.54
6       45.505  17.4149999      540.378
6       -5.03   -33.939999      544.847
6       -5.453  -30.469999      545.823
6       -8.25   -29.899999      550.602
6       -9.287  -33.289999      549.187
6       -9.365  -28.989999      555.065
6       -12.05  -31.66  555.522
6       -10.369999      -27.079999      562.363
6       -13.77  -27.91  564.873
6       -10.369999      -24.93  568.99
6       -13.779999      -24.079999      573.16
6       -9.369  -23.02  572.514
6       -12.27  -21.44  577.576
6       -8.25   -22.1   572.983
6       -8.847  -18.51  578.214
6       -5.459  -21.53  569.75
6       -5.045  -18.039999      572.645
6       -3.75   -22.1   565.169
6       -1.461  -19.399999      566.658
6       -2.015  -23.91  558.577
6       0.90413 -22.829999      559.599
6       -1.5    -26     552.903
6       2.002   -25.98  553.901
6       -2.012  -28.09  548.204
6       0.88708 -29.01  549.065
6       -3.75   -29.899999      545.468
6       -1.449  -32.57  544.991
6       -53.52  15.522  538.287
6       -53.45  19.533  534.404
6       -55.59  19.791  528.452
6       -56.829999      16.5219999      531.007
6       -57.369999      21.0139999      521.372
6       -59.99  18.695  522.046
6       -58.369999      22.92   515.208
6       -61.77  22.0859999      514.387
6       -58.369999      25.074  511.242
6       -61.939999      24.9579999      511.373
6       -57.369999      26.9819999      509.888
6       -60.189999      29.0749999      509.077
6       -56.25  27.8969999      510.47
6       -56.85  31.4899999      510.487
6       -53.46  28.468  514.939
6       -53.049999      31.9549999      514.253
6       -51.45  27.7049999      520.95
6       -49.46  30.6    521.983
6       -50.02  26.094  527.909
6       -46.92  27.7349999      530.037
6       -49.5   24      534.086
6       -46     24.0159999      537.588
6       -50.009999      21.911  537.953
6       -46.909999      20.2959999      542.783
6       -51.75  20.103  537.722
6       -49.45  17.4259999      543.403
6       -17.219999      -26.739999      573.779
6       -18.239999      -29.109999      572.603
6       5.013   -30.829999      551.604
6       4.837   -27.57  554.557
6       -43.119999      25.1009999      541.112
6       -42.53  29.3219999      537.596
6       -47.27  30.536  526.735
6       -44.49  23.704  540.786
6       -44.1   19.0919999      551.083
6       -45.939999      17.09   551.419
6       -47.789999      15.0879999      551.495
6       -58.18  14.74   532.968
6       -56.359999      10.785  544.736
6       -54.859999      7.291   557.145
6       -51.43  11.599  551.363
6       -52.74  2.875   575.577
6       -84.95  19.533  568.548
6       -87.75  20.103  574.312
6       -88.87  21.0139999      573.942
6       -89.87  22.92   570.051
6       -93.269999      22.0859999      574.994
6       -89.87  25.074  563.067
6       -93.269999      25.9229999      565.643
6       -88.87  26.9819999      554.832
6       -91.489999      29.315  556.412
6       -87.75  27.8969999      549.295
6       -88.349999      31.4899999      547.179
6       -84.959999      28.4669999      542.039
6       -84.549999      31.9549999      541.065
6       -83.25  27.8969999      539.645
6       -80.959999      30.6    538.688
6       -81.519999      26.094  540.297
6       -78.42  27.734  539.521
6       -81     24      544.495
6       -77.5   24.0159999      543.548
6       -81.51  21.911  551.513
6       -78.409999      20.2959999      551.7
6       -83.25  20.103  561.332
6       -139.02 -21.48  536.946
6       -138.96 -17.469999      537.604
6       -141.09 -17.21  531.937
6       -142.34 -20.48  531.493
6       -142.87 -15.99  528.8
6       -145.25999      -18.55  528.19
6       -143.87 -14.08  528.484
6       -147.27 -14.92  527.77
6       -143.87 -11.93  531.192
6       -147.44 -12.039999      529.38
6       -142.87 -10.02  536.68
6       -145.97 -8.292  535.193
6       -141.75 -9.105  541.927
6       -142.34999      -5.512  545.818
6       -138.96 -8.534  551.711
6       -138.55 -5.046  554.447
6       -136.94999      -9.297  557.794
6       -135.53999      -6.387  561.283
6       -135.52 -10.91  560.234
6       -132.41999      -9.2669999      566.568
6       -135    -13     558.368
6       -131.5  -12.99  563.568
6       -135.50999      -15.09  552.632
6       -132.41 -16.71  555.875
6       -137.25 -16.899999      544.014
6       -134.94999      -19.579999      546.577
6       -92.65  30.2289999      558.248
6       -95.379999      29.417  565.338
6       -97.93  26.151  576.23
6       -98.89  28.3799999      575.781
6       -134.75999      -21.829999      546.48
6       -143.25 -4.557  546.073
6       -140.53 -0.8208 557.604
6       -135.94 -1.748  565.913
6       -137.81 2.915   570.864
6       -132.3  -5.256  571.794
6       -130.16999      -9.019  572.907
6       -130.08 -19.379999      559.346
6       -131.15 -21.93  555.576
6       -129.66 -16.57  563.124
6       -128.31 -12.93  572.272
6       -125.54 -16.379999      576.137
6       -125.88 -19.46  571.503
6       -126.56 -22.41  568.693
6       -46.39  -10.38  624.288
6       -48.509999      -5.959  613.292
6       -50.63  -1.542  596.211
6       -43.399999      -15.1   629.364
6       -39.399999      -19.01  628.503
6       -34.609999      -21.879999      622.21
6       -51.68  0.6665  585.974
6       -31.44  -23.309999      614.995
0       133.539999      3.8     558.814
0       135.09  6.651   561.64
0       132.37  10.387  571.705
0       129.569999      5.765   569.855
0       129.65  14.1229999      580.32
0       127.77  10.411  579.709
0       124.93  14.4979999      587.245
0       126.14  17.9869999      586.693
0       121.19  17.7989999      591.322
0       121.87  20.9989999      589.661
0       116.79  20.1299999      591.335
0       117.05  23.0159999      589.06
0       111.959999      21.3539999      586.855
0       112.17  24.4579999      583.795
0       106.98  21.3909999      578.866
0       107.29  25.901  574.168
0       102.14  20.225  570.422
0       102.41  27.344  562.416
0       86.1979999      9.72    561.006
0       82.6779999      6.995   563.508
0       84.2699999      2.161   575.006
0       89.54   5.778   574.252
0       85.8619999      -2.674  585.405
0       89.024  0.82356 583.713
0       89.691  -4.099  591.656
0       87.4549999      -7.508  592.206
0       91.4959999      -8.726  596.423
0       89.3289999      -11.76  594.875
0       94.3319999      -12.8   597.718
0       91.989  -15.57  595.225
0       98.0499999      -16.1   596.35
0       95.3329999      -18.8   594.012
0       102.44  -18.42  592.897
0       99.2369999      -21.32  591.569
0       107.26  -19.64  587.477
0       103.55  -23.05  587.989
0       112.22  -19.66  580.113
0       108.12  -23.91  583.116
0       112.77  -23.87  577.114
0       114.15  -21.579999      574.82
0       117.36  -23.379999      568.399
0       117.4   -20.69  568.559
0       117.05  -18.489999      571.037
0       121.959999      -22.899999      558.214
0       121.61  -19.42  559.282
0       121.44  -16.18  561.949
0       126.56  -22.41  547.493
0       125.81  -18.129999      549.945
0       125.15  -12.869999      555.363
0       8.871   -25.59  545.975
0       11.474  -29.079999      543.263
0       16.527  -27.55  552.322
0       13.0589999      -23.129999      552.238
0       21.581  -26.03  563.352
0       17.3299999      -19.02  563.612
0       26.635  -24.5   573.594
0       22.129  -20.199999      571.45
0       27.0719999      -20.199999      579
0       31.6879999      -22.98  580.571
0       31.872  -19.02  584.25
0       36.2749999      -21.05  583.412
0       36.249  -16.719999      585.928
0       40.3669999      -18.219999      583.172
0       39.9489999      -13.449999      583.894
0       43.7879999      -14.609999      580.24
0       42.7569999      -9.378  578.117
0       46.3909999      -10.38  574.312
0       44.5099999      -4.756  568.706
0       48.509  -5.959  564.634
0       12.9529999      -16.719999      560.392
0       9.589   -19.5   553.758
0       9.25    -13.449999      561.112
0       6.413   -16.079999      556.119
0       45.1049999      0.15093 557.138
0       50.6259999      -1.542  551.793
0       52.744  2.875   538.157
0       49.402  3.689   541.016
0       44.5009999      5.055   547.166
0       49.445  8.182   530.42
0       54.8609999      7.291   524.322
0       6.443   -9.377  565.189
0       3.843   -12.33  558.679
0       36.182  22.893  533.376
0       33.036  26.8939999      537.496
0       28.291  25.6789999      550.613
0       31.867  19.3189999      549.221
0       23.5459999      24.465  562.528
0       27.067  20.501  559.797
0       22.125  20.501  569.516
0       18.8009999      23.251  570.928
0       17.3249999      19.3189999      575.873
0       13.75   21.331  575.233
0       12.948  17.023  577.975
0       9.363   19.4929999      574.508
0       9.246   13.7479999      577.188
0       4.741   18.3709999      570.659
0       6.439   9.679   576.783
0       2.947   12.478  571.581
0       -9.80E-13       17.994  568.851
0       -0.7326 13.981  569.99
0       -4.741  18.3709999      570.086
0       -4.697  14.281  570.927
0       -9.363  19.4929999      572.776
0       -10.05  13.7669999      576.054
0       -26.17  -25.69  570.349
0       -21.949999      -27.59  559.379
0       -18.69  -23.629999      558.047
0       -24.329999      -23.02  569.771
0       -13.75  21.331  574.266
0       -13.77  17.0369999      577.048
0       -18.16  19.3249999      575.628
0       -18.8   23.251  571.953
0       -22.98  20.5019999      570.594
0       -23.55  24.465  565.744
0       -27.93  20.5019999      562.401
0       -28.289999      25.6789999      555.824
0       -7.214  9.69999999      576.201
0       -3.835  10.4149999      572.378
0       -5.442  5.07    576.323
0       -2.276  6.566   573.466
0       -32.75  19.327  553.494
0       -33.039999      26.8939999      543.649
0       -37.78  28.108  531.468
0       -39.32  22.466  534.279
0       -37.14  17.041  548.091
0       -41.289999      17.8889999      537.633
0       -40.869999      13.7739999      546.699
0       -42.659999      14.869  540.549
0       -43.71  9.711   550.043
0       -46.119999      12.75   538.341
0       -4.834  0.15518 574.708
0       -1.019  2.043   572.989
0       -27.46  -22.109999      577.242
0       -29.329999      -24.26  578.284
0       -22.969999      -20.199999      572.189
0       -27.93  -20.199999      581.472
0       -5.43   -4.767  570.659
0       -0.8645 -4.218  568.475
